ply
format ascii 1.0
comment Created by CloudCompare v2.10.3 (Zephyrus)
comment Created 27.08.22 18:11
obj_info Generated by CloudCompare!
element vertex 749
property float x
property float y
property float z
property uchar red
property uchar green
property uchar blue
property float scalar_PointSourceId
property float scalar_ScanAngleRank
property float scalar_EdgeOfFlightLine
property float scalar_NumberOfReturns
property float scalar_ReturnNumber
property float scalar_GpsTime
property float scalar_Intensity
property float scalar_Classification
end_header
103857 194956 30.22 67 78 85 22014 -11 0 1 1 4.91196e+07 33 1 
103857 194955 29.54 65 79 86 22014 -11 0 1 1 4.91196e+07 36 1 
103857 194955 28.74 65 80 82 22014 -11 0 1 1 4.91196e+07 35 1 
103857 194954 27.98 66 78 86 22014 -11 0 1 1 4.91196e+07 28 1 
103857 194954 27.18 68 80 88 22014 -11 0 1 1 4.91196e+07 39 1 
103857 194953 26.41 70 83 89 22014 -11 0 1 1 4.91196e+07 78 1 
103857 194953 26.33 69 85 88 22014 -11 0 1 1 4.91196e+07 256 1 
103857 194953 26.34 79 88 97 22014 -11 0 1 1 4.91196e+07 136 1 
103857 194964 26.4 71 91 81 22014 -10 0 1 1 4.91196e+07 128 1 
103857 194964 26.37 74 86 80 22014 -10 0 1 1 4.91196e+07 125 1 
103857 194963 26.54 69 87 86 22014 -10 0 1 1 4.91196e+07 107 1 
103857 194963 26.93 69 84 83 22014 -10 0 1 1 4.91196e+07 65 1 
103857 194963 27.28 67 82 82 22014 -10 0 1 1 4.91196e+07 76 1 
103857 194963 27.66 65 81 82 22014 -10 0 1 1 4.91196e+07 54 1 
103857 194962 28.03 59 78 79 22014 -10 0 1 1 4.91196e+07 86 1 
103857 194962 28.37 58 77 82 22014 -10 0 1 1 4.91196e+07 77 1 
103857 194962 28.74 61 75 80 22014 -10 0 1 1 4.91196e+07 71 1 
103857 194962 29.13 60 80 86 22014 -10 0 1 1 4.91196e+07 86 1 
103857 194962 29.53 62 87 93 22014 -10 0 1 1 4.91196e+07 61 1 
103857 194961 29.87 61 74 83 22014 -10 0 1 1 4.91196e+07 97 1 
103857 194961 30.26 64 85 92 22014 -10 0 1 1 4.91196e+07 102 1 
103857 194961 30.6 79 104 105 22014 -10 0 1 1 4.91196e+07 75 1 
103857 194961 30.97 85 100 103 22014 -11 0 1 1 4.91196e+07 112 1 
103857 194960 31.31 79 95 100 22014 -11 0 1 1 4.91196e+07 83 1 
103857 194960 31.72 78 93 99 22014 -11 0 1 1 4.91196e+07 65 1 
103857 194960 32.11 78 94 96 22014 -11 0 1 1 4.91196e+07 73 1 
103857 194960 32.43 72 85 93 22014 -11 0 1 1 4.91196e+07 106 1 
103857 194959 32.81 60 75 81 22014 -11 0 1 1 4.91196e+07 82 1 
103857 194959 33.21 60 75 83 22014 -11 0 1 1 4.91196e+07 86 1 
103857 194959 33.57 62 75 79 22014 -11 0 1 1 4.91196e+07 70 1 
103857 194959 33.93 64 77 82 22014 -11 0 1 1 4.91196e+07 98 1 
103857 194959 34.34 64 78 82 22014 -11 0 1 1 4.91196e+07 133 1 
103857 194958 34.72 61 78 83 22014 -11 0 1 1 4.91196e+07 134 1 
103857 194958 33.93 65 78 85 22014 -11 0 1 1 4.91196e+07 31 1 
103857 194957 33.14 65 77 81 22014 -11 0 1 1 4.91196e+07 38 1 
103857 194957 32.4 66 80 80 22014 -11 0 1 1 4.91196e+07 33 1 
103857 194957 31.68 66 79 83 22014 -11 0 1 1 4.91196e+07 45 1 
103857 194956 30.96 69 81 81 22014 -11 0 1 1 4.91196e+07 26 1 
103857 194956 30.11 68 80 82 22014 -11 0 1 1 4.91196e+07 29 1 
103857 194955 29.34 64 80 85 22014 -11 0 1 1 4.91196e+07 38 1 
103857 194955 28.59 66 82 81 22014 -11 0 1 1 4.91196e+07 28 1 
103857 194954 27.75 64 80 89 22014 -11 0 1 1 4.91196e+07 27 1 
103857 194954 27.04 67 80 87 22014 -11 0 1 1 4.91196e+07 25 1 
103857 194953 26.35 72 83 86 22014 -11 0 1 1 4.91196e+07 126 1 
103857 194953 26.32 70 84 86 22014 -11 0 1 1 4.91196e+07 172 1 
103857 194953 26.36 80 103 103 22014 -11 0 1 1 4.91196e+07 126 1 
103857 194964 22.68 73 91 84 22014 -10 0 1 1 4.91196e+07 336 1 
103857 194964 26.38 73 92 89 22014 -10 0 1 1 4.91196e+07 173 1 
103857 194964 26.39 73 89 84 22014 -10 0 1 1 4.91196e+07 158 1 
103857 194963 26.57 71 90 85 22014 -10 0 1 1 4.91196e+07 83 1 
103857 194963 26.93 69 91 84 22014 -10 0 1 1 4.91196e+07 44 1 
103857 194963 27.28 66 81 81 22014 -10 0 1 1 4.91196e+07 56 1 
103857 194963 27.65 61 76 80 22014 -10 0 1 1 4.91196e+07 52 1 
103857 194962 28.03 60 82 80 22014 -10 0 1 1 4.91196e+07 69 1 
103857 194962 28.4 60 78 86 22014 -10 0 1 1 4.91196e+07 64 1 
103857 194962 28.8 63 77 83 22014 -10 0 1 1 4.91196e+07 84 1 
103857 194962 29.15 65 80 89 22014 -10 0 1 1 4.91196e+07 83 1 
103857 194961 29.53 65 85 94 22014 -10 0 1 1 4.91196e+07 72 1 
103857 194961 29.91 62 75 80 22014 -10 0 1 1 4.91196e+07 84 1 
103857 194961 30.23 64 75 83 22014 -10 0 1 1 4.91196e+07 95 1 
103857 194961 30.64 78 105 105 22014 -11 0 1 1 4.91196e+07 99 1 
103857 194960 31.02 82 101 104 22014 -11 0 1 1 4.91196e+07 55 1 
103857 194960 31.39 81 99 101 22014 -11 0 1 1 4.91196e+07 78 1 
103857 194960 31.76 78 101 106 22014 -11 0 1 1 4.91196e+07 90 1 
103857 194960 32.11 78 94 101 22014 -11 0 1 1 4.91196e+07 81 1 
103856 194960 32.48 71 85 92 22014 -11 0 1 1 4.91196e+07 101 1 
103856 194959 32.86 66 77 86 22014 -11 0 1 1 4.91196e+07 103 1 
103856 194959 33.23 64 78 82 22014 -11 0 1 1 4.91196e+07 56 1 
103856 194959 33.61 64 75 81 22014 -11 0 1 1 4.91196e+07 76 1 
103856 194959 33.98 63 76 85 22014 -11 0 1 1 4.91196e+07 99 1 
103856 194958 34.32 65 77 82 22014 -11 0 1 1 4.91196e+07 56 1 
103856 194958 34.72 64 78 83 22014 -11 0 1 1 4.91196e+07 89 1 
103856 194958 33.93 66 76 81 22014 -11 0 1 1 4.91196e+07 32 1 
103856 194957 33.23 65 75 80 22014 -11 0 1 1 4.91196e+07 33 1 
103856 194957 32.38 69 80 81 22014 -11 0 1 1 4.91196e+07 48 1 
103856 194956 31.63 66 78 82 22014 -11 0 1 1 4.91196e+07 36 1 
103856 194956 30.88 64 78 84 22014 -11 0 1 1 4.91196e+07 28 1 
103856 194956 30.06 66 77 85 22014 -11 0 1 1 4.91196e+07 28 1 
103856 194955 29.3 69 79 86 22014 -11 0 1 1 4.91196e+07 33 1 
103856 194955 28.52 70 79 90 22014 -11 0 1 1 4.91196e+07 29 1 
103857 194954 27.78 67 79 85 22014 -11 0 1 1 4.91196e+07 23 1 
103857 194954 27.01 68 84 89 22014 -11 0 1 1 4.91196e+07 42 1 
103857 194953 26.33 71 88 90 22014 -11 0 1 1 4.91196e+07 135 1 
103857 194953 26.34 74 86 84 22014 -11 0 1 1 4.91196e+07 154 1 
103857 194953 26.42 86 108 107 22014 -11 0 1 1 4.91196e+07 137 1 
103856 194964 26.51 74 94 85 22014 -10 0 2 1 4.91196e+07 101 1 
103857 194963 22.71 70 89 86 22014 -10 0 2 2 4.91196e+07 136 1 
103856 194964 26.38 72 91 87 22014 -10 0 1 1 4.91196e+07 124 1 
103856 194963 26.4 71 91 88 22014 -10 0 1 1 4.91196e+07 134 1 
103856 194963 26.59 66 84 86 22014 -10 0 1 1 4.91196e+07 62 1 
103856 194963 26.99 67 80 81 22014 -10 0 1 1 4.91196e+07 56 1 
103856 194963 27.36 61 79 84 22014 -10 0 1 1 4.91196e+07 53 1 
103856 194962 27.73 58 75 80 22014 -10 0 1 1 4.91196e+07 72 1 
103856 194962 28.1 59 74 82 22014 -10 0 1 1 4.91196e+07 63 1 
103856 194962 28.46 60 77 82 22014 -10 0 1 1 4.91196e+07 74 1 
103856 194962 28.83 61 78 85 22014 -10 0 1 1 4.91196e+07 74 1 
103856 194962 29.2 64 84 85 22014 -10 0 1 1 4.91196e+07 59 1 
103856 194961 29.57 66 83 88 22014 -10 0 1 1 4.91196e+07 82 1 
103856 194961 29.93 63 72 81 22014 -10 0 1 1 4.91196e+07 72 1 
103856 194961 30.32 62 77 84 22014 -10 0 1 1 4.91196e+07 78 1 
103856 194961 30.71 76 89 93 22014 -11 0 1 1 4.91196e+07 71 1 
103856 194960 31.08 80 94 96 22014 -11 0 1 1 4.91196e+07 71 1 
103856 194960 31.43 80 93 98 22014 -11 0 1 1 4.91196e+07 99 1 
103856 194960 31.79 76 95 102 22014 -11 0 1 1 4.91196e+07 101 1 
103856 194960 32.18 79 92 98 22014 -11 0 1 1 4.91196e+07 61 1 
103856 194959 32.57 69 85 93 22014 -11 0 1 1 4.91196e+07 77 1 
103856 194959 32.93 66 76 87 22014 -11 0 1 1 4.91196e+07 61 1 
103856 194959 33.34 59 76 84 22014 -11 0 1 1 4.91196e+07 55 1 
103856 194959 33.68 62 77 84 22014 -11 0 1 1 4.91196e+07 84 1 
103856 194959 34.06 64 76 83 22014 -11 0 1 1 4.91196e+07 106 1 
103856 194958 34.4 65 77 82 22014 -11 0 1 1 4.91196e+07 88 1 
103856 194958 34.68 65 79 82 22014 -11 0 1 1 4.91196e+07 114 1 
103856 194958 33.75 66 80 82 22014 -11 0 1 1 4.91196e+07 33 1 
103856 194957 33.04 63 82 85 22014 -11 0 1 1 4.91196e+07 43 1 
103856 194957 32.25 65 78 82 22014 -11 0 1 1 4.91196e+07 28 1 
103856 194956 31.53 64 81 81 22014 -11 0 1 1 4.91196e+07 35 1 
103856 194956 30.76 65 79 85 22014 -11 0 1 1 4.91196e+07 27 1 
103856 194955 30.01 67 78 85 22014 -11 0 1 1 4.91196e+07 45 1 
103856 194955 29.23 64 79 86 22014 -11 0 1 1 4.91196e+07 37 1 
103856 194954 28.37 68 80 85 22014 -11 0 1 1 4.91196e+07 41 1 
103856 194954 27.57 68 80 83 22014 -11 0 1 1 4.91196e+07 27 1 
103856 194954 26.76 71 91 86 22014 -11 0 1 1 4.91196e+07 38 1 
103856 194953 26.32 73 84 91 22014 -11 0 1 1 4.91196e+07 145 1 
103856 194953 26.34 74 82 87 22014 -11 0 1 1 4.91196e+07 159 1 
103856 194953 26.44 85 104 108 22014 -11 0 1 1 4.91196e+07 117 1 
103856 194964 22.78 72 85 88 22014 -10 0 1 1 4.91196e+07 290 1 
103856 194964 26.51 69 87 85 22014 -10 0 2 1 4.91196e+07 88 1 
103856 194964 26.39 70 84 90 22014 -10 0 1 1 4.91196e+07 147 1 
103856 194963 26.4 64 81 82 22014 -10 0 1 1 4.91196e+07 131 1 
103856 194963 26.67 63 77 83 22014 -10 0 1 1 4.91196e+07 46 1 
103856 194963 27.06 61 75 81 22014 -10 0 1 1 4.91196e+07 72 1 
103856 194963 27.4 59 72 81 22014 -10 0 1 1 4.91196e+07 71 1 
103856 194962 27.78 58 74 81 22014 -10 0 1 1 4.91196e+07 82 1 
103856 194962 28.12 61 78 82 22014 -10 0 1 1 4.91196e+07 49 1 
103856 194962 28.49 61 81 86 22014 -10 0 1 1 4.91196e+07 70 1 
103856 194962 28.86 65 84 88 22014 -10 0 1 1 4.91196e+07 66 1 
103856 194961 29.24 65 88 95 22014 -10 0 1 1 4.91196e+07 76 1 
103856 194961 29.64 66 82 91 22014 -10 0 1 1 4.91196e+07 69 1 
103856 194961 29.99 62 71 82 22014 -10 0 1 1 4.91196e+07 55 1 
103856 194961 30.39 66 82 87 22014 -10 0 1 1 4.91196e+07 82 1 
103856 194961 30.73 71 77 82 22014 -11 0 1 1 4.91196e+07 92 1 
103856 194960 31.11 73 91 101 22014 -11 0 1 1 4.91196e+07 81 1 
103856 194960 31.5 79 100 103 22014 -11 0 1 1 4.91196e+07 59 1 
103856 194960 31.84 80 102 106 22014 -11 0 1 1 4.91196e+07 92 1 
103856 194960 32.25 78 93 99 22014 -11 0 1 1 4.91196e+07 59 1 
103856 194959 32.61 69 85 91 22014 -11 0 1 1 4.91196e+07 89 1 
103856 194959 32.99 64 77 86 22014 -11 0 1 1 4.91196e+07 58 1 
103856 194959 33.32 62 77 84 22014 -11 0 1 1 4.91196e+07 45 1 
103856 194959 33.72 64 76 81 22014 -11 0 1 1 4.91196e+07 74 1 
103856 194958 34.09 64 79 83 22014 -11 0 1 1 4.91196e+07 103 1 
103856 194958 34.42 64 76 79 22014 -11 0 1 1 4.91196e+07 55 1 
103856 194958 34.64 64 78 83 22014 -11 0 1 1 4.91196e+07 74 1 
103856 194957 33.74 64 76 85 22014 -11 0 1 1 4.91196e+07 36 1 
103856 194957 33.04 59 78 82 22014 -11 0 1 1 4.91196e+07 38 1 
103856 194957 32.27 65 78 81 22014 -11 0 1 1 4.91196e+07 31 1 
103856 194956 31.47 65 81 82 22014 -11 0 1 1 4.91196e+07 34 1 
103856 194956 30.61 67 79 85 22014 -11 0 1 1 4.91196e+07 28 1 
103856 194955 29.89 67 81 85 22014 -11 0 1 1 4.91196e+07 23 1 
103856 194955 29.07 68 83 89 22014 -11 0 1 1 4.91196e+07 39 1 
103856 194954 28.28 64 82 86 22014 -11 0 1 1 4.91196e+07 33 1 
103856 194954 27.46 68 84 87 22014 -11 0 1 1 4.91196e+07 26 1 
103856 194953 26.76 68 84 87 22014 -11 0 1 1 4.91196e+07 32 1 
103856 194953 26.36 69 86 90 22014 -11 0 1 1 4.91196e+07 170 1 
103856 194953 26.34 75 84 92 22014 -11 0 1 1 4.91196e+07 196 1 
103856 194952 26.44 97 123 116 22014 -11 0 2 1 4.91196e+07 112 1 
103856 194964 26.48 71 91 88 22014 -10 0 1 1 4.91196e+07 232 1 
103856 194963 26.39 71 85 85 22014 -10 0 1 1 4.91196e+07 114 1 
103856 194963 26.39 68 86 84 22014 -10 0 1 1 4.91196e+07 133 1 
103856 194963 26.76 66 83 83 22014 -10 0 1 1 4.91196e+07 50 1 
103856 194963 27.11 62 79 80 22014 -10 0 1 1 4.91196e+07 79 1 
103856 194962 27.45 62 76 78 22014 -10 0 1 1 4.91196e+07 58 1 
103856 194962 27.85 61 75 82 22014 -10 0 1 1 4.91196e+07 78 1 
103856 194962 28.16 60 78 84 22014 -10 0 1 1 4.91196e+07 74 1 
103856 194962 28.6 62 75 84 22014 -10 0 1 1 4.91196e+07 62 1 
103855 194962 28.96 64 79 89 22014 -10 0 1 1 4.91196e+07 85 1 
103855 194961 29.31 67 91 97 22014 -10 0 1 1 4.91196e+07 69 1 
103855 194961 29.68 65 87 93 22014 -10 0 1 1 4.91196e+07 100 1 
103855 194961 30.06 69 86 94 22014 -10 0 1 1 4.91196e+07 82 1 
103855 194961 30.45 68 79 79 22014 -11 0 1 1 4.91196e+07 76 1 
103855 194960 30.83 68 83 86 22014 -11 0 1 1 4.91196e+07 51 1 
103855 194960 31.23 73 95 97 22014 -11 0 1 1 4.91196e+07 51 1 
103855 194960 31.57 78 98 104 22014 -11 0 1 1 4.91196e+07 69 1 
103855 194960 31.93 79 99 103 22014 -11 0 1 1 4.91196e+07 79 1 
103855 194960 32.31 80 95 100 22014 -11 0 1 1 4.91196e+07 61 1 
103855 194959 32.68 72 83 91 22014 -11 0 1 1 4.91196e+07 80 1 
103855 194959 33.07 60 79 86 22014 -11 0 1 1 4.91196e+07 63 1 
103855 194959 33.43 65 77 85 22014 -11 0 1 1 4.91196e+07 85 1 
103855 194959 33.81 64 76 84 22014 -11 0 1 1 4.91196e+07 69 1 
103855 194958 34.16 65 77 82 22014 -11 0 1 1 4.91196e+07 79 1 
103855 194958 34.56 66 76 83 22014 -11 0 1 1 4.91196e+07 118 1 
103855 194958 34.52 66 77 82 22014 -11 0 1 1 4.91196e+07 27 1 
103855 194957 33.59 64 80 84 22014 -11 0 1 1 4.91196e+07 56 1 
103855 194957 32.75 65 79 84 22014 -11 0 1 1 4.91196e+07 25 1 
103855 194956 32.07 66 82 82 22014 -11 0 1 1 4.91196e+07 36 1 
103855 194956 31.24 64 80 84 22014 -11 0 1 1 4.91196e+07 36 1 
103855 194956 30.51 63 81 87 22014 -11 0 1 1 4.91196e+07 21 1 
103855 194955 29.7 66 82 85 22014 -11 0 1 1 4.91196e+07 38 1 
103855 194955 28.98 68 82 88 22014 -11 0 1 1 4.91196e+07 29 1 
103855 194954 28.13 68 83 87 22014 -11 0 1 1 4.91196e+07 29 1 
103855 194954 27.28 69 85 87 22014 -11 0 1 1 4.91196e+07 21 1 
103855 194953 26.49 70 84 88 22014 -11 0 1 1 4.91196e+07 40 1 
103855 194953 26.34 68 88 88 22014 -11 0 1 1 4.91196e+07 187 1 
103855 194953 26.33 77 88 92 22014 -11 0 1 1 4.91196e+07 163 1 
103855 194952 26.46 104 128 117 22014 -11 0 2 1 4.91196e+07 25 1 
103855 194964 26.5 74 90 90 22014 -10 0 1 1 4.91196e+07 208 1 
103855 194963 26.39 74 91 87 22014 -10 0 1 1 4.91196e+07 130 1 
103855 194963 26.38 73 89 86 22014 -10 0 1 1 4.91196e+07 129 1 
103855 194963 26.75 68 85 83 22014 -10 0 1 1 4.91196e+07 42 1 
103855 194963 27.13 66 82 79 22014 -10 0 1 1 4.91196e+07 63 1 
103855 194962 27.48 63 81 83 22014 -10 0 1 1 4.91196e+07 55 1 
103855 194962 27.85 61 79 83 22014 -10 0 1 1 4.91196e+07 53 1 
103855 194962 28.21 62 75 81 22014 -10 0 1 1 4.91196e+07 77 1 
103855 194962 28.57 62 75 82 22014 -10 0 1 1 4.91196e+07 77 1 
103855 194961 28.98 62 84 90 22014 -10 0 1 1 4.91196e+07 72 1 
103855 194961 29.35 68 95 103 22014 -10 0 1 1 4.91196e+07 88 1 
103855 194961 29.77 74 93 104 22014 -10 0 1 1 4.91196e+07 81 1 
103855 194961 30.1 77 97 91 22014 -10 0 1 1 4.91196e+07 74 1 
103855 194961 30.5 72 77 82 22014 -11 0 1 1 4.91196e+07 49 1 
103855 194960 30.82 72 84 89 22014 -11 0 1 1 4.91196e+07 59 1 
103855 194960 31.21 76 104 103 22014 -11 0 1 1 4.91196e+07 66 1 
103855 194960 31.58 85 103 104 22014 -11 0 1 1 4.91196e+07 68 1 
103855 194960 32 82 101 107 22014 -11 0 1 1 4.91196e+07 65 1 
103855 194959 32.32 81 95 99 22014 -11 0 1 1 4.91196e+07 58 1 
103855 194959 32.75 70 85 89 22014 -11 0 1 1 4.91196e+07 55 1 
103855 194959 33.1 63 76 86 22014 -11 0 1 1 4.91196e+07 66 1 
103855 194959 33.45 64 78 84 22014 -11 0 1 1 4.91196e+07 72 1 
103855 194959 33.79 65 76 84 22014 -11 0 1 1 4.91196e+07 61 1 
103855 194958 34.18 64 78 83 22014 -11 0 1 1 4.91196e+07 99 1 
103855 194958 34.61 66 78 83 22014 -11 0 1 1 4.91196e+07 137 1 
103855 194958 34.38 60 79 84 22014 -11 0 1 1 4.91196e+07 30 1 
103855 194957 33.54 64 76 81 22014 -11 0 1 1 4.91196e+07 33 1 
103855 194957 32.77 64 81 83 22014 -11 0 1 1 4.91196e+07 35 1 
103855 194956 32.04 67 77 82 22014 -11 0 1 1 4.91196e+07 28 1 
103855 194956 31.3 67 81 85 22014 -11 0 1 1 4.91196e+07 40 1 
103855 194955 30.43 69 81 83 22014 -11 0 1 1 4.91196e+07 29 1 
103855 194955 29.68 69 82 88 22014 -11 0 1 1 4.91196e+07 33 1 
103855 194955 28.91 68 84 88 22014 -11 0 1 1 4.91196e+07 33 1 
103855 194954 28.05 69 84 88 22014 -11 0 1 1 4.91196e+07 31 1 
103855 194954 27.28 69 82 87 22014 -11 0 1 1 4.91196e+07 33 1 
103855 194953 26.47 70 86 91 22014 -11 0 1 1 4.91196e+07 42 1 
103855 194953 26.34 74 88 91 22014 -11 0 1 1 4.91196e+07 184 1 
103855 194952 26.33 79 90 100 22014 -11 0 1 1 4.91196e+07 158 1 
103855 194963 23.37 71 88 86 22014 -10 0 1 1 4.91196e+07 125 1 
103855 194964 26.41 70 85 86 22014 -10 0 1 1 4.91196e+07 165 1 
103855 194963 26.4 71 88 86 22014 -10 0 1 1 4.91196e+07 155 1 
103855 194963 26.48 70 90 85 22014 -10 0 1 1 4.91196e+07 102 1 
103855 194963 26.79 70 84 88 22014 -10 0 1 1 4.91196e+07 56 1 
103855 194963 27.17 66 82 87 22014 -10 0 1 1 4.91196e+07 58 1 
103855 194962 27.51 66 81 85 22014 -10 0 1 1 4.91196e+07 72 1 
103855 194962 27.93 67 81 82 22014 -10 0 1 1 4.91196e+07 58 1 
103855 194962 28.3 66 80 82 22014 -10 0 1 1 4.91196e+07 65 1 
103855 194962 28.63 64 79 87 22014 -10 0 1 1 4.91196e+07 73 1 
103855 194961 29.03 65 87 95 22014 -10 0 1 1 4.91196e+07 63 1 
103855 194961 29.4 68 92 104 22014 -10 0 1 1 4.91196e+07 92 1 
103855 194961 29.78 70 84 93 22014 -10 0 1 1 4.91196e+07 56 1 
103855 194961 30.16 68 88 94 22014 -10 0 1 1 4.91196e+07 71 1 
103855 194960 30.56 72 97 95 22014 -11 0 1 1 4.91196e+07 54 1 
103855 194960 30.94 80 84 93 22014 -11 0 1 1 4.91196e+07 77 1 
103855 194960 31.28 81 101 105 22014 -11 0 1 1 4.91196e+07 55 1 
103854 194960 31.68 86 101 107 22014 -11 0 1 1 4.91196e+07 87 1 
103854 194960 32.02 82 102 104 22014 -11 0 1 1 4.91196e+07 82 1 
103854 194959 32.36 76 91 96 22014 -11 0 1 1 4.91196e+07 73 1 
103854 194959 32.75 67 81 87 22014 -11 0 1 1 4.91196e+07 73 1 
103854 194959 33.11 60 76 85 22014 -11 0 1 1 4.91196e+07 69 1 
103854 194959 33.5 64 76 84 22014 -11 0 1 1 4.91196e+07 110 1 
103854 194958 33.85 64 75 84 22014 -11 0 1 1 4.91196e+07 115 1 
103854 194958 34.25 65 77 84 22014 -11 0 1 1 4.91196e+07 186 1 
103854 194958 34.65 64 76 83 22014 -11 0 1 1 4.91196e+07 123 1 
103854 194958 34.24 66 77 81 22014 -11 0 1 1 4.91196e+07 32 1 
103854 194957 33.49 65 75 81 22014 -11 0 1 1 4.91196e+07 29 1 
103854 194957 32.7 66 77 81 22014 -11 0 1 1 4.91196e+07 35 1 
103854 194956 31.82 68 80 84 22014 -11 0 1 1 4.91196e+07 27 1 
103854 194956 31.09 69 79 82 22014 -11 0 1 1 4.91196e+07 22 1 
103854 194955 30.25 65 83 88 22014 -11 0 1 1 4.91196e+07 31 1 
103854 194955 29.47 69 86 88 22014 -11 0 1 1 4.91196e+07 32 1 
103854 194954 28.69 69 83 89 22014 -11 0 1 1 4.91196e+07 27 1 
103854 194954 27.96 68 83 86 22014 -11 0 1 1 4.91196e+07 32 1 
103854 194953 27.22 69 82 88 22014 -11 0 1 1 4.91196e+07 28 1 
103854 194953 26.38 71 88 92 22014 -11 0 1 1 4.91196e+07 106 1 
103854 194953 26.34 75 89 85 22014 -11 0 1 1 4.91196e+07 196 1 
103854 194952 26.33 81 105 99 22014 -11 0 1 1 4.91196e+07 134 1 
103854 194963 23.76 71 92 85 22014 -10 0 1 1 4.91196e+07 138 1 
103854 194963 26.38 69 87 88 22014 -10 0 1 1 4.91196e+07 135 1 
103854 194963 26.39 69 91 82 22014 -10 0 1 1 4.91196e+07 158 1 
103854 194963 26.48 68 88 84 22014 -10 0 1 1 4.91196e+07 102 1 
103854 194963 26.84 68 85 83 22014 -10 0 1 1 4.91196e+07 39 1 
103854 194962 27.21 68 81 84 22014 -10 0 1 1 4.91196e+07 44 1 
103854 194962 27.55 64 80 88 22014 -10 0 1 1 4.91196e+07 57 1 
103854 194962 27.94 66 83 85 22014 -10 0 1 1 4.91196e+07 65 1 
103854 194962 28.31 67 81 81 22014 -10 0 1 1 4.91196e+07 68 1 
103854 194961 28.66 66 84 90 22014 -10 0 1 1 4.91196e+07 83 1 
103854 194961 29.04 66 90 96 22014 -10 0 1 1 4.91196e+07 74 1 
103854 194961 29.46 68 89 94 22014 -10 0 1 1 4.91196e+07 56 1 
103854 194961 29.87 66 73 87 22014 -10 0 1 1 4.91196e+07 86 1 
103854 194961 30.2 66 82 89 22014 -11 0 1 1 4.91196e+07 93 1 
103854 194960 30.62 80 105 101 22014 -11 0 1 1 4.91196e+07 59 1 
103854 194960 30.97 91 106 102 22014 -11 0 1 1 4.91196e+07 65 1 
103854 194960 31.33 89 102 105 22014 -11 0 1 1 4.91196e+07 69 1 
103854 194960 31.66 85 99 108 22014 -11 0 1 1 4.91196e+07 47 1 
103854 194959 32.07 84 98 101 22014 -11 0 1 1 4.91196e+07 66 1 
103854 194959 32.48 70 90 94 22014 -11 0 1 1 4.91196e+07 62 1 
103854 194959 32.82 67 79 86 22014 -11 0 1 1 4.91196e+07 72 1 
103854 194959 33.2 64 77 83 22014 -11 0 1 1 4.91196e+07 90 1 
103854 194958 33.56 66 78 82 22014 -11 0 1 1 4.91196e+07 70 1 
103854 194958 33.93 62 76 84 22014 -11 0 1 1 4.91196e+07 82 1 
103854 194958 34.29 66 80 85 22014 -11 0 1 1 4.91196e+07 128 1 
103854 194958 34.68 66 77 81 22014 -11 0 1 1 4.91196e+07 135 1 
103854 194957 33.97 66 77 82 22014 -11 0 1 1 4.91196e+07 39 1 
103854 194957 33.21 66 77 83 22014 -11 0 1 1 4.91196e+07 26 1 
103854 194956 32.42 66 81 81 22014 -11 0 1 1 4.91196e+07 30 1 
103854 194956 31.69 64 82 87 22014 -11 0 1 1 4.91196e+07 40 1 
103854 194956 30.94 65 81 87 22014 -11 0 1 1 4.91196e+07 39 1 
103854 194955 30.17 68 81 87 22014 -11 0 1 1 4.91196e+07 26 1 
103854 194955 29.35 67 83 83 22014 -11 0 1 1 4.91196e+07 27 1 
103854 194954 28.52 66 84 87 22014 -11 0 1 1 4.91196e+07 29 1 
103854 194954 27.75 69 84 88 22014 -11 0 1 1 4.91196e+07 32 1 
103854 194953 27.04 75 87 86 22014 -11 0 1 1 4.91196e+07 32 1 
103854 194953 26.34 71 92 91 22014 -11 0 1 1 4.91196e+07 157 1 
103854 194953 26.32 75 86 91 22014 -11 0 1 1 4.91196e+07 155 1 
103854 194952 26.34 87 101 103 22014 -11 0 1 1 4.91196e+07 130 1 
103854 194963 23.63 71 91 86 22014 -10 0 1 1 4.91196e+07 115 1 
103854 194963 26.38 74 90 87 22014 -10 0 1 1 4.91196e+07 137 1 
103854 194963 26.4 71 90 90 22014 -10 0 1 1 4.91196e+07 167 1 
103854 194963 26.52 71 88 84 22014 -10 0 1 1 4.91196e+07 111 1 
103854 194963 26.9 67 81 84 22014 -10 0 1 1 4.91196e+07 46 1 
103854 194962 27.27 61 81 90 22014 -10 0 1 1 4.91196e+07 58 1 
103854 194962 27.63 64 81 85 22014 -10 0 1 1 4.91196e+07 55 1 
103854 194962 27.97 63 81 86 22014 -10 0 1 1 4.91196e+07 58 1 
103854 194962 28.37 62 76 84 22014 -10 0 1 1 4.91196e+07 69 1 
103854 194961 28.77 65 82 88 22014 -10 0 1 1 4.91196e+07 62 1 
103854 194961 29.12 64 87 96 22014 -10 0 1 1 4.91196e+07 71 1 
103854 194961 29.51 63 85 96 22014 -10 0 1 1 4.91196e+07 68 1 
103854 194961 29.87 66 71 83 22014 -10 0 1 1 4.91196e+07 92 1 
103854 194960 30.24 70 87 95 22014 -11 0 1 1 4.91196e+07 102 1 
103854 194960 30.64 82 102 103 22014 -11 0 1 1 4.91196e+07 45 1 
103854 194960 31 89 105 110 22014 -11 0 1 1 4.91196e+07 62 1 
103854 194960 31.37 89 107 105 22014 -11 0 1 1 4.91196e+07 61 1 
103854 194960 31.75 85 100 108 22014 -11 0 1 1 4.91196e+07 47 1 
103854 194959 32.16 82 99 102 22014 -11 0 1 1 4.91196e+07 75 1 
103854 194959 32.48 74 82 93 22014 -11 0 1 1 4.91196e+07 70 1 
103854 194959 32.82 65 76 89 22014 -11 0 1 1 4.91196e+07 64 1 
103854 194959 33.2 64 78 87 22014 -11 0 1 1 4.91196e+07 60 1 
103854 194958 33.57 65 77 85 22014 -11 0 1 1 4.91196e+07 69 1 
103854 194958 33.96 66 77 83 22014 -11 0 1 1 4.91196e+07 96 1 
103854 194958 34.32 65 76 83 22014 -11 0 1 1 4.91196e+07 49 1 
103854 194958 34.7 66 77 84 22014 -11 0 1 1 4.91196e+07 107 1 
103854 194957 33.93 64 78 82 22014 -11 0 1 1 4.91196e+07 35 1 
103854 194957 33.21 64 80 83 22014 -11 0 1 1 4.91196e+07 39 1 
103854 194956 32.49 67 80 84 22014 -11 0 1 1 4.91196e+07 32 1 
103854 194956 31.66 66 82 84 22014 -11 0 1 1 4.91196e+07 29 1 
103854 194955 30.83 68 84 86 22014 -11 0 1 1 4.91196e+07 27 1 
103854 194955 30.06 69 78 89 22014 -11 0 1 1 4.91196e+07 33 1 
103854 194955 29.24 65 82 88 22014 -11 0 1 1 4.91196e+07 26 1 
103854 194954 28.52 67 80 87 22014 -11 0 1 1 4.91196e+07 40 1 
103854 194954 27.76 69 81 88 22014 -11 0 1 1 4.91196e+07 30 1 
103854 194953 27.06 70 85 88 22014 -11 0 1 1 4.91196e+07 31 1 
103854 194953 26.34 73 89 93 22014 -11 0 1 1 4.91196e+07 163 1 
103854 194952 26.35 75 81 93 22014 -11 0 1 1 4.91196e+07 202 1 
103854 194952 26.4 95 116 113 22014 -11 0 1 1 4.91196e+07 136 1 
103854 194963 23.81 73 88 87 22014 -10 0 1 1 4.91196e+07 124 1 
103854 194964 26.49 70 89 91 22014 -10 0 2 1 4.91196e+07 22 1 
103854 194963 25.42 72 89 89 22014 -10 0 2 2 4.91196e+07 87 1 
103854 194963 26.39 73 88 89 22014 -10 0 1 1 4.91196e+07 126 1 
103854 194963 26.39 70 87 84 22014 -10 0 1 1 4.91196e+07 142 1 
103854 194963 26.54 65 86 91 22014 -10 0 1 1 4.91196e+07 95 1 
103854 194962 26.9 67 84 89 22014 -10 0 1 1 4.91196e+07 57 1 
103854 194962 27.28 64 83 85 22014 -10 0 1 1 4.91196e+07 58 1 
103854 194962 27.63 65 80 82 22014 -10 0 1 1 4.91196e+07 55 1 
103853 194962 28.04 60 78 83 22014 -10 0 1 1 4.91196e+07 56 1 
103853 194962 28.42 61 78 81 22014 -10 0 1 1 4.91196e+07 58 1 
103853 194961 28.79 64 79 86 22014 -10 0 1 1 4.91196e+07 51 1 
103853 194961 29.14 66 88 93 22014 -10 0 1 1 4.91196e+07 68 1 
103853 194961 29.53 68 89 95 22014 -10 0 1 1 4.91196e+07 52 1 
103853 194961 29.91 61 75 84 22014 -10 0 1 1 4.91196e+07 70 1 
103853 194960 30.31 65 75 81 22014 -11 0 1 1 4.91196e+07 85 1 
103853 194960 30.65 75 95 102 22014 -11 0 1 1 4.91196e+07 87 1 
103853 194960 31.05 84 102 104 22014 -11 0 1 1 4.91196e+07 46 1 
103853 194960 31.44 83 104 109 22014 -11 0 1 1 4.91196e+07 55 1 
103853 194959 31.75 84 107 109 22014 -11 0 1 1 4.91196e+07 68 1 
103853 194959 32.13 82 97 104 22014 -11 0 1 1 4.91196e+07 85 1 
103853 194959 32.49 74 83 93 22014 -11 0 1 1 4.91196e+07 80 1 
103853 194959 32.92 68 77 87 22014 -11 0 1 1 4.91196e+07 72 1 
103853 194959 33.25 64 78 85 22014 -11 0 1 1 4.91196e+07 82 1 
103853 194958 33.65 67 80 84 22014 -11 0 1 1 4.91196e+07 90 1 
103853 194958 33.99 65 76 84 22014 -11 0 1 1 4.91196e+07 108 1 
103853 194958 34.32 66 78 84 22014 -11 0 1 1 4.91196e+07 68 1 
103853 194958 34.68 65 77 84 22014 -11 0 1 1 4.91196e+07 166 1 
103853 194957 33.79 66 78 83 22014 -11 0 1 1 4.91196e+07 31 1 
103853 194957 33 68 81 82 22014 -11 0 1 1 4.91196e+07 27 1 
103853 194956 32.32 67 80 87 22014 -11 0 1 1 4.91196e+07 33 1 
103853 194956 31.49 72 83 86 22014 -11 0 1 1 4.91196e+07 32 1 
103853 194955 30.79 68 79 84 22014 -11 0 1 1 4.91196e+07 24 1 
103853 194955 29.99 70 82 83 22014 -11 0 1 1 4.91196e+07 30 1 
103853 194954 29.21 68 81 87 22014 -11 0 1 1 4.91196e+07 20 1 
103853 194954 28.43 66 81 85 22014 -11 0 1 1 4.91196e+07 36 1 
103853 194954 27.61 69 82 88 22014 -11 0 1 1 4.91196e+07 19 1 
103853 194953 26.94 71 83 90 22014 -11 0 1 1 4.91196e+07 38 1 
103853 194953 26.35 72 89 93 22014 -11 0 1 1 4.91196e+07 224 1 
103853 194952 26.35 77 86 91 22014 -11 0 1 1 4.91196e+07 148 1 
103853 194952 26.43 92 115 108 22014 -12 0 1 1 4.91196e+07 162 1 
103853 194964 26.5 69 85 85 22014 -10 0 2 1 4.91196e+07 45 1 
103853 194963 24 73 92 86 22014 -10 0 2 2 4.91196e+07 90 1 
103853 194963 26.4 70 91 89 22014 -10 0 1 1 4.91196e+07 145 1 
103853 194963 26.39 73 87 86 22014 -10 0 1 1 4.91196e+07 201 1 
103853 194963 26.6 69 83 85 22014 -10 0 1 1 4.91196e+07 57 1 
103853 194962 26.92 64 79 84 22014 -10 0 1 1 4.91196e+07 38 1 
103853 194962 27.33 62 78 80 22014 -10 0 1 1 4.91196e+07 40 1 
103853 194962 27.69 60 79 83 22014 -10 0 1 1 4.91196e+07 52 1 
103853 194962 28.01 61 74 79 22014 -10 0 1 1 4.91196e+07 61 1 
103853 194961 28.41 60 78 79 22014 -10 0 1 1 4.91196e+07 61 1 
103853 194961 28.78 61 77 86 22014 -10 0 1 1 4.91196e+07 66 1 
103853 194961 29.19 65 85 94 22014 -10 0 1 1 4.91196e+07 62 1 
103853 194961 29.54 67 89 94 22014 -10 0 1 1 4.91196e+07 63 1 
103853 194960 29.93 66 71 83 22014 -11 0 1 1 4.91196e+07 58 1 
103853 194960 30.3 64 79 91 22014 -11 0 1 1 4.91196e+07 61 1 
103853 194960 30.67 79 97 95 22014 -11 0 1 1 4.91196e+07 75 1 
103853 194960 31.04 91 104 104 22014 -11 0 1 1 4.91196e+07 65 1 
103853 194960 31.41 92 105 109 22014 -11 0 1 1 4.91196e+07 57 1 
103853 194959 31.8 87 107 109 22014 -11 0 1 1 4.91196e+07 74 1 
103853 194959 32.15 83 98 101 22014 -11 0 1 1 4.91196e+07 58 1 
103853 194959 32.53 71 85 94 22014 -11 0 1 1 4.91196e+07 80 1 
103853 194959 32.88 64 78 88 22014 -11 0 1 1 4.91196e+07 48 1 
103853 194958 33.25 63 79 85 22014 -11 0 1 1 4.91196e+07 97 1 
103853 194958 33.59 66 80 84 22014 -11 0 1 1 4.91196e+07 88 1 
103853 194958 34 67 80 85 22014 -11 0 1 1 4.91196e+07 107 1 
103853 194958 34.38 68 78 85 22014 -11 0 1 1 4.91196e+07 69 1 
103853 194958 34.65 68 77 84 22014 -11 0 1 1 4.91196e+07 84 1 
103853 194957 33.74 69 74 85 22014 -11 0 1 1 4.91196e+07 32 1 
103853 194957 33.02 65 78 86 22014 -11 0 1 1 4.91196e+07 33 1 
103853 194956 32.25 67 81 85 22014 -11 0 1 1 4.91196e+07 41 1 
103853 194956 31.54 67 83 85 22014 -11 0 1 1 4.91196e+07 36 1 
103853 194955 30.7 70 83 84 22014 -11 0 1 1 4.91196e+07 36 1 
103853 194955 29.92 67 82 88 22014 -11 0 1 1 4.91196e+07 36 1 
103853 194954 29.16 65 82 85 22014 -11 0 1 1 4.91196e+07 39 1 
103853 194954 28.38 68 81 85 22014 -11 0 1 1 4.91196e+07 24 1 
103853 194953 27.64 69 84 85 22014 -11 0 1 1 4.91196e+07 35 1 
103853 194953 26.92 70 85 88 22014 -11 0 1 1 4.91196e+07 34 1 
103853 194953 26.35 76 91 93 22014 -11 0 1 1 4.91196e+07 181 1 
103853 194952 26.36 73 85 92 22014 -11 0 1 1 4.91196e+07 190 1 
103853 194952 26.45 92 117 114 22014 -12 0 1 1 4.91196e+07 122 1 
103853 194963 26.5 70 87 90 22014 -10 0 2 1 4.91196e+07 120 1 
103853 194963 24.03 69 87 85 22014 -10 0 2 2 4.91196e+07 59 1 
103853 194963 26.41 70 89 87 22014 -10 0 1 1 4.91196e+07 124 1 
103853 194963 26.41 66 83 85 22014 -10 0 1 1 4.91196e+07 186 1 
103853 194963 26.62 65 77 84 22014 -10 0 1 1 4.91196e+07 52 1 
103853 194962 27 64 79 80 22014 -10 0 1 1 4.91196e+07 41 1 
103853 194962 27.33 60 78 83 22014 -10 0 1 1 4.91196e+07 35 1 
103853 194962 27.7 60 76 82 22014 -10 0 1 1 4.91196e+07 59 1 
103853 194962 28.07 61 79 83 22014 -10 0 1 1 4.91196e+07 51 1 
103853 194961 28.46 65 79 83 22014 -10 0 1 1 4.91196e+07 67 1 
103853 194961 28.84 63 83 88 22014 -10 0 1 1 4.91196e+07 86 1 
103853 194961 29.2 61 87 92 22014 -10 0 1 1 4.91196e+07 57 1 
103853 194961 29.57 62 86 93 22014 -10 0 1 1 4.91196e+07 84 1 
103853 194960 29.91 67 70 86 22014 -11 0 1 1 4.91196e+07 56 1 
103853 194960 30.33 67 98 101 22014 -11 0 1 1 4.91196e+07 72 1 
103853 194960 30.68 95 116 116 22014 -11 0 1 1 4.91196e+07 53 1 
103852 194960 31.07 95 106 108 22014 -11 0 1 1 4.91196e+07 59 1 
103852 194959 31.45 90 104 110 22014 -11 0 1 1 4.91196e+07 72 1 
103852 194959 31.78 88 107 109 22014 -11 0 1 1 4.91196e+07 77 1 
103852 194959 32.15 78 97 103 22014 -11 0 1 1 4.91196e+07 51 1 
103852 194959 32.52 71 84 94 22014 -11 0 1 1 4.91196e+07 60 1 
103852 194959 32.93 69 78 89 22014 -11 0 1 1 4.91196e+07 55 1 
103852 194958 33.29 67 78 85 22014 -11 0 1 1 4.91196e+07 73 1 
103852 194958 33.66 65 78 86 22014 -11 0 1 1 4.91196e+07 72 1 
103852 194958 34.06 65 77 82 22014 -11 0 1 1 4.91196e+07 138 1 
103852 194958 34.41 65 78 88 22014 -11 0 1 1 4.91196e+07 66 1 
103852 194957 34.61 66 81 82 22014 -11 0 1 1 4.91196e+07 83 1 
103852 194957 33.73 64 83 86 22014 -11 0 1 1 4.91196e+07 29 1 
103852 194956 32.96 71 79 84 22014 -11 0 1 1 4.91196e+07 28 1 
103852 194956 32.13 65 82 85 22014 -11 0 1 1 4.91196e+07 36 1 
103852 194956 31.39 67 80 84 22014 -11 0 1 1 4.91196e+07 32 1 
103852 194955 30.58 70 83 88 22014 -11 0 1 1 4.91196e+07 41 1 
103852 194955 29.83 73 81 85 22014 -11 0 1 1 4.91196e+07 27 1 
103852 194954 29.15 69 82 84 22014 -11 0 1 1 4.91196e+07 34 1 
103852 194954 28.34 69 80 87 22014 -11 0 1 1 4.91196e+07 27 1 
103852 194953 27.63 68 84 88 22014 -11 0 1 1 4.91196e+07 31 1 
103852 194953 26.79 72 86 93 22014 -11 0 1 1 4.91196e+07 41 1 
103852 194952 26.35 76 96 96 22014 -11 0 1 1 4.91196e+07 189 1 
103852 194952 26.34 77 86 94 22014 -11 0 1 1 4.91196e+07 156 1 
103852 194952 26.44 92 120 114 22014 -12 0 1 1 4.91196e+07 130 1 
103852 194963 26.49 67 86 89 22014 -10 0 2 1 4.91196e+07 154 1 
103852 194963 22.69 67 82 84 22014 -10 0 2 2 4.91196e+07 84 1 
103852 194963 26.41 69 81 84 22014 -10 0 1 1 4.91196e+07 149 1 
103852 194963 26.41 66 82 85 22014 -10 0 1 1 4.91196e+07 131 1 
103852 194962 26.63 63 82 85 22014 -10 0 1 1 4.91196e+07 52 1 
103852 194962 27.02 63 80 81 22014 -10 0 1 1 4.91196e+07 49 1 
103852 194962 27.38 62 79 81 22014 -10 0 1 1 4.91196e+07 46 1 
103852 194962 27.74 61 76 83 22014 -10 0 1 1 4.91196e+07 74 1 
103852 194961 28.09 60 76 82 22014 -10 0 1 1 4.91196e+07 54 1 
103852 194961 28.46 62 77 83 22014 -10 0 1 1 4.91196e+07 48 1 
103852 194961 28.83 61 79 86 22014 -10 0 1 1 4.91196e+07 60 1 
103852 194961 29.21 65 87 95 22014 -10 0 1 1 4.91196e+07 58 1 
103852 194961 29.58 67 84 90 22014 -10 0 1 1 4.91196e+07 86 1 
103852 194960 29.96 65 72 82 22014 -11 0 1 1 4.91196e+07 109 1 
103852 194960 30.35 71 88 97 22014 -11 0 1 1 4.91196e+07 71 1 
103852 194960 30.7 84 111 117 22014 -11 0 1 1 4.91196e+07 81 1 
103852 194960 31.06 92 105 105 22014 -11 0 1 1 4.91196e+07 83 1 
103852 194959 31.4 89 102 108 22014 -11 0 1 1 4.91196e+07 61 1 
103852 194959 31.82 87 108 107 22014 -11 0 1 1 4.91196e+07 114 1 
103852 194959 32.17 79 96 102 22014 -11 0 1 1 4.91196e+07 68 1 
103852 194959 32.57 67 86 94 22014 -11 0 1 1 4.91196e+07 88 1 
103852 194958 32.97 64 81 86 22014 -11 0 1 1 4.91196e+07 63 1 
103852 194958 33.29 63 77 86 22014 -11 0 1 1 4.91196e+07 76 1 
103852 194958 33.65 65 76 84 22014 -11 0 1 1 4.91196e+07 99 1 
103852 194958 33.99 67 79 82 22014 -11 0 1 1 4.91196e+07 108 1 
103852 194958 34.41 67 77 85 22014 -11 0 1 1 4.91196e+07 72 1 
103852 194957 34.61 64 76 83 22014 -11 0 1 1 4.91196e+07 85 1 
103852 194957 33.68 61 80 83 22014 -11 0 1 1 4.91196e+07 52 1 
103852 194956 32.88 67 81 83 22014 -11 0 1 1 4.91196e+07 29 1 
103852 194956 32.15 69 81 85 22014 -11 0 1 1 4.91196e+07 34 1 
103852 194956 31.43 68 82 86 22014 -11 0 1 1 4.91196e+07 37 1 
103852 194955 30.7 68 81 87 22014 -11 0 1 1 4.91196e+07 28 1 
103852 194955 29.87 69 82 87 22014 -11 0 1 1 4.91196e+07 42 1 
103852 194954 29.09 68 84 87 22014 -11 0 1 1 4.91196e+07 30 1 
103852 194954 28.28 70 80 87 22014 -11 0 1 1 4.91196e+07 34 1 
103852 194953 27.52 67 87 88 22014 -11 0 1 1 4.91196e+07 26 1 
103852 194953 26.87 72 91 93 22014 -11 0 1 1 4.91196e+07 25 1 
103852 194952 26.34 73 92 97 22014 -11 0 1 1 4.91196e+07 169 1 
103852 194952 26.34 76 86 87 22014 -11 0 1 1 4.91196e+07 200 1 
103852 194952 26.44 96 127 114 22014 -12 0 1 1 4.91196e+07 145 1 
103852 194963 22.73 65 82 84 22014 -10 0 2 2 4.91196e+07 133 1 
103852 194963 26.48 66 83 89 22014 -10 0 2 1 4.91196e+07 78 1 
103852 194963 26.41 65 81 88 22014 -10 0 1 1 4.91196e+07 145 1 
103852 194963 26.4 65 80 82 22014 -10 0 1 1 4.91196e+07 148 1 
103852 194962 26.62 64 78 82 22014 -10 0 1 1 4.91196e+07 51 1 
103852 194962 27.01 64 80 82 22014 -10 0 1 1 4.91196e+07 58 1 
103852 194962 27.37 67 77 82 22014 -10 0 1 1 4.91196e+07 36 1 
103852 194962 27.71 63 79 86 22014 -10 0 1 1 4.91196e+07 47 1 
103852 194961 28.08 63 79 86 22014 -10 0 1 1 4.91196e+07 50 1 
103852 194961 28.44 62 80 87 22014 -10 0 1 1 4.91196e+07 67 1 
103852 194961 28.85 64 83 91 22014 -10 0 1 1 4.91196e+07 61 1 
103852 194961 29.23 65 86 102 22014 -10 0 1 1 4.91196e+07 75 1 
103852 194960 29.55 62 90 100 22014 -10 0 1 1 4.91196e+07 77 1 
103852 194960 29.94 63 77 84 22014 -11 0 1 1 4.91196e+07 87 1 
103852 194960 30.29 67 85 93 22014 -11 0 1 1 4.91196e+07 76 1 
103852 194960 30.68 83 99 97 22014 -11 0 1 1 4.91196e+07 74 1 
103852 194960 31.09 89 97 109 22014 -11 0 1 1 4.91196e+07 76 1 
103852 194959 31.42 89 108 109 22014 -11 0 1 1 4.91196e+07 47 1 
103852 194959 31.84 85 106 108 22014 -11 0 1 1 4.91196e+07 74 1 
103852 194959 32.2 80 98 100 22014 -11 0 1 1 4.91196e+07 81 1 
103852 194959 32.54 71 85 93 22014 -11 0 1 1 4.91196e+07 76 1 
103852 194958 32.92 64 79 85 22014 -11 0 1 1 4.91196e+07 76 1 
103852 194958 33.27 62 76 85 22014 -11 0 1 1 4.91196e+07 71 1 
103852 194958 33.68 66 76 85 22014 -11 0 1 1 4.91196e+07 119 1 
103851 194958 34.03 65 78 84 22014 -11 0 1 1 4.91196e+07 85 1 
103851 194958 34.43 65 78 84 22014 -11 0 1 1 4.91196e+07 55 1 
103851 194957 34.56 66 78 83 22014 -11 0 1 1 4.91196e+07 97 1 
103851 194957 33.75 65 78 86 22014 -11 0 1 1 4.91196e+07 48 1 
103851 194956 32.97 66 79 84 22014 -11 0 1 1 4.91196e+07 37 1 
103851 194956 32.15 67 80 82 22014 -11 0 1 1 4.91196e+07 33 1 
103852 194955 31.35 65 81 82 22014 -11 0 1 1 4.91196e+07 26 1 
103852 194955 30.64 69 83 88 22014 -11 0 1 1 4.91196e+07 35 1 
103852 194955 29.85 66 85 86 22014 -11 0 1 1 4.91196e+07 29 1 
103852 194954 29.12 69 81 85 22014 -11 0 1 1 4.91196e+07 29 1 
103852 194954 28.33 70 84 84 22014 -11 0 1 1 4.91196e+07 28 1 
103852 194953 27.6 68 81 88 22014 -11 0 1 1 4.91196e+07 37 1 
103852 194953 26.82 70 86 92 22014 -11 0 1 1 4.91196e+07 29 1 
103852 194952 26.35 70 87 93 22014 -11 0 1 1 4.91196e+07 146 1 
103852 194952 26.35 78 86 93 22014 -12 0 1 1 4.91196e+07 184 1 
103852 194952 26.46 103 128 123 22014 -12 0 1 1 4.91196e+07 139 1 
103852 194963 26.44 67 82 86 22014 -10 0 2 1 4.91196e+07 34 1 
103852 194963 26.41 65 80 88 22014 -10 0 1 1 4.91196e+07 156 1 
103852 194963 26.41 63 81 83 22014 -10 0 1 1 4.91196e+07 177 1 
103851 194962 26.55 64 81 84 22014 -10 0 1 1 4.91196e+07 106 1 
103851 194962 26.92 63 79 82 22014 -10 0 1 1 4.91196e+07 50 1 
103851 194962 27.29 62 80 82 22014 -10 0 1 1 4.91196e+07 62 1 
103851 194962 27.66 60 77 83 22014 -10 0 1 1 4.91196e+07 58 1 
103851 194961 28.04 61 78 86 22014 -10 0 1 1 4.91196e+07 53 1 
103851 194961 28.4 63 84 91 22014 -10 0 1 1 4.91196e+07 87 1 
103851 194961 28.76 66 83 94 22014 -10 0 1 1 4.91196e+07 47 1 
103851 194961 29.11 68 88 93 22014 -10 0 1 1 4.91196e+07 72 1 
103851 194960 29.51 66 89 95 22014 -10 0 1 1 4.91196e+07 85 1 
103851 194960 29.88 67 76 82 22014 -11 0 1 1 4.91196e+07 72 1 
103851 194960 30.27 66 84 95 22014 -11 0 1 1 4.91196e+07 66 1 
103851 194960 30.63 90 99 100 22014 -11 0 1 1 4.91196e+07 92 1 
103851 194960 31.01 95 100 99 22014 -11 0 1 1 4.91196e+07 76 1 
103851 194959 31.36 90 96 99 22014 -11 0 1 1 4.91196e+07 52 1 
103851 194959 31.74 83 100 101 22014 -11 0 1 1 4.91196e+07 65 1 
103851 194959 32.11 78 95 100 22014 -11 0 1 1 4.91196e+07 86 1 
103851 194959 32.48 74 84 94 22014 -11 0 1 1 4.91196e+07 86 1 
103851 194958 32.85 67 80 88 22014 -11 0 1 1 4.91196e+07 60 1 
103851 194958 33.24 64 77 86 22014 -11 0 1 1 4.91196e+07 88 1 
103851 194958 33.61 66 78 84 22014 -11 0 1 1 4.91196e+07 66 1 
103851 194958 33.97 66 79 83 22014 -11 0 1 1 4.91196e+07 133 1 
103851 194957 34.35 67 79 85 22014 -11 0 1 1 4.91196e+07 67 1 
103851 194957 34.65 67 79 84 22014 -11 0 1 1 4.91196e+07 115 1 
103851 194957 33.79 66 82 84 22014 -11 0 1 1 4.91196e+07 38 1 
103851 194956 33.04 67 81 84 22014 -11 0 1 1 4.91196e+07 31 1 
103851 194956 32.24 65 79 87 22014 -11 0 1 1 4.91196e+07 33 1 
103851 194955 31.53 69 79 86 22014 -11 0 1 1 4.91196e+07 29 1 
103851 194955 30.78 64 82 87 22014 -11 0 1 1 4.91196e+07 25 1 
103851 194955 30.06 67 84 86 22014 -11 0 1 1 4.91196e+07 33 1 
103851 194954 29.18 69 81 85 22014 -11 0 1 1 4.91196e+07 40 1 
103851 194954 28.38 69 82 88 22014 -11 0 1 1 4.91196e+07 48 1 
103851 194953 27.68 69 82 88 22014 -11 0 1 1 4.91196e+07 32 1 
103851 194953 26.89 71 88 90 22014 -11 0 1 1 4.91196e+07 26 1 
103851 194952 26.39 71 87 92 22014 -11 0 1 1 4.91196e+07 150 1 
103851 194952 26.45 69 79 85 22014 -12 0 1 1 4.91196e+07 196 1 
103851 194952 26.45 92 111 113 22014 -12 0 1 1 4.91196e+07 177 1 
103851 194963 26.39 66 83 84 22014 -10 0 1 1 4.91196e+07 154 1 
103851 194963 26.4 64 81 85 22014 -10 0 1 1 4.91196e+07 140 1 
103851 194962 26.52 65 79 82 22014 -10 0 1 1 4.91196e+07 141 1 
103851 194962 26.88 63 78 80 22014 -10 0 1 1 4.91196e+07 41 1 
103851 194962 27.23 64 79 82 22014 -10 0 1 1 4.91196e+07 50 1 
103851 194962 27.59 63 76 82 22014 -10 0 1 1 4.91196e+07 58 1 
103851 194961 27.97 63 84 88 22014 -10 0 1 1 4.91196e+07 52 1 
103851 194961 28.33 64 80 84 22014 -10 0 1 1 4.91196e+07 27 1 
103851 194961 28.71 65 83 90 22014 -10 0 1 1 4.91196e+07 51 1 
103851 194961 29.07 69 86 94 22014 -10 0 1 1 4.91196e+07 54 1 
103851 194960 29.44 68 90 99 22014 -10 0 1 1 4.91196e+07 55 1 
103851 194960 29.85 63 78 86 22014 -11 0 1 1 4.91196e+07 59 1 
103851 194960 30.19 65 78 88 22014 -11 0 1 1 4.91196e+07 46 1 
103851 194960 30.56 80 113 107 22014 -11 0 1 1 4.91196e+07 42 1 
103851 194959 30.93 89 108 109 22014 -11 0 1 1 4.91196e+07 54 1 
103851 194959 31.33 88 105 108 22014 -11 0 1 1 4.91196e+07 67 1 
103851 194959 31.7 92 110 110 22014 -11 0 1 1 4.91196e+07 61 1 
103851 194959 32.1 84 99 106 22014 -11 0 1 1 4.91196e+07 75 1 
103851 194959 32.48 76 92 96 22014 -11 0 1 1 4.91196e+07 51 1 
103851 194958 32.81 71 80 90 22014 -11 0 1 1 4.91196e+07 61 1 
103851 194958 33.16 64 79 87 22014 -11 0 1 1 4.91196e+07 80 1 
103851 194958 33.56 67 84 85 22014 -11 0 1 1 4.91196e+07 104 1 
103851 194958 33.96 65 82 87 22014 -11 0 1 1 4.91196e+07 144 1 
103851 194957 34.3 66 81 88 22014 -11 0 1 1 4.91196e+07 154 1 
103851 194957 34.68 66 83 86 22014 -11 0 1 1 4.91196e+07 106 1 
103851 194957 33.95 67 81 86 22014 -11 0 1 1 4.91196e+07 37 1 
103851 194956 33.18 68 80 84 22014 -11 0 1 1 4.91196e+07 24 1 
103851 194956 32.43 68 82 85 22014 -11 0 1 1 4.91196e+07 33 1 
103851 194955 31.66 66 79 81 22014 -11 0 1 1 4.91196e+07 33 1 
103851 194955 30.79 67 81 86 22014 -11 0 1 1 4.91196e+07 33 1 
103851 194955 30.07 68 82 88 22014 -11 0 1 1 4.91196e+07 27 1 
103851 194954 29.22 63 79 84 22014 -11 0 1 1 4.91196e+07 35 1 
103851 194954 28.45 69 83 86 22014 -11 0 1 1 4.91196e+07 37 1 
103851 194953 27.78 68 82 84 22014 -11 0 1 1 4.91196e+07 33 1 
103851 194953 27.06 69 85 91 22014 -11 0 1 1 4.91196e+07 41 1 
103851 194952 26.34 74 90 91 22014 -11 0 1 1 4.91196e+07 139 1 
103851 194952 26.35 77 80 87 22014 -12 0 1 1 4.91196e+07 163 1 
103851 194952 26.39 88 108 110 22014 -12 0 1 1 4.91196e+07 127 1 
103851 194963 26.4 68 82 87 22014 -10 0 1 1 4.91196e+07 177 1 
103851 194963 26.41 67 82 85 22014 -10 0 1 1 4.91196e+07 136 1 
103851 194962 26.46 68 84 77 22014 -10 0 1 1 4.91196e+07 114 1 
103851 194962 26.81 62 79 84 22014 -10 0 1 1 4.91196e+07 50 1 
103851 194962 27.19 64 76 80 22014 -10 0 1 1 4.91196e+07 64 1 
103851 194962 27.6 60 79 83 22014 -10 0 1 1 4.91196e+07 57 1 
103851 194961 27.9 60 81 87 22014 -10 0 1 1 4.91196e+07 50 1 
103851 194961 28.32 64 81 88 22014 -10 0 1 1 4.91196e+07 59 1 
103851 194961 28.67 64 82 89 22014 -10 0 1 1 4.91196e+07 50 1 
103851 194961 29.03 67 87 96 22014 -10 0 1 1 4.91196e+07 57 1 
103851 194960 29.39 66 87 98 22014 -10 0 1 1 4.91196e+07 62 1 
103851 194960 29.78 63 73 87 22014 -11 0 1 1 4.91196e+07 54 1 
103850 194960 30.19 64 71 86 22014 -11 0 1 1 4.91196e+07 55 1 
103850 194960 30.54 75 98 102 22014 -11 0 1 1 4.91196e+07 49 1 
103850 194959 30.91 87 106 107 22014 -11 0 1 1 4.91196e+07 75 1 
103850 194959 31.28 91 110 110 22014 -11 0 1 1 4.91196e+07 87 1 
103850 194959 31.66 90 111 112 22014 -11 0 1 1 4.91196e+07 64 1 
103850 194959 31.99 86 105 107 22014 -11 0 1 1 4.91196e+07 53 1 
103850 194959 32.35 74 89 97 22014 -11 0 1 1 4.91196e+07 76 1 
103850 194958 32.81 69 83 92 22014 -11 0 1 1 4.91196e+07 75 1 
103850 194958 33.14 64 83 92 22014 -11 0 1 1 4.91196e+07 63 1 
103850 194958 33.53 68 85 86 22014 -11 0 1 1 4.91196e+07 74 1 
103850 194958 33.86 65 80 88 22014 -11 0 1 1 4.91196e+07 68 1 
103850 194957 34.25 67 81 84 22014 -11 0 1 1 4.91196e+07 138 1 
103850 194957 34.64 65 83 87 22014 -11 0 1 1 4.91196e+07 133 1 
103850 194957 34.07 71 80 84 22014 -11 0 1 1 4.91196e+07 34 1 
103850 194956 33.25 66 81 86 22014 -11 0 1 1 4.91196e+07 34 1 
103850 194956 32.45 67 82 85 22014 -11 0 1 1 4.91196e+07 25 1 
103850 194955 31.77 67 80 85 22014 -11 0 1 1 4.91196e+07 35 1 
103850 194955 30.98 68 81 88 22014 -11 0 1 1 4.91196e+07 34 1 
103850 194955 30.28 66 80 84 22014 -11 0 1 1 4.91196e+07 22 1 
103850 194954 29.48 67 80 81 22014 -11 0 1 1 4.91196e+07 28 1 
103850 194954 28.63 65 81 86 22014 -11 0 1 1 4.91196e+07 42 1 
103850 194953 27.82 62 81 85 22014 -11 0 1 1 4.91196e+07 33 1 
103850 194953 27.1 69 83 86 22014 -11 0 1 1 4.91196e+07 28 1 
103850 194952 26.34 74 92 91 22014 -11 0 1 1 4.91196e+07 132 1 
103850 194952 26.34 75 81 90 22014 -12 0 1 1 4.91196e+07 183 1 
103850 194952 26.35 87 107 105 22014 -12 0 1 1 4.91196e+07 164 1 
103850 194963 23.04 68 84 83 22014 -10 0 1 1 4.91196e+07 174 1 
103850 194963 26.44 67 87 85 22014 -10 0 1 1 4.91196e+07 269 1 
103850 194963 26.4 68 84 83 22014 -10 0 1 1 4.91196e+07 156 1 
103850 194962 26.42 68 84 85 22014 -10 0 1 1 4.91196e+07 91 1 
103850 194962 26.78 69 83 84 22014 -10 0 1 1 4.91196e+07 41 1 
103850 194962 27.13 64 80 83 22014 -10 0 1 1 4.91196e+07 38 1 
103850 194962 27.49 61 80 84 22014 -10 0 1 1 4.91196e+07 36 1 
103850 194961 27.83 64 78 83 22014 -10 0 1 1 4.91196e+07 54 1 
103850 194961 28.17 63 80 87 22014 -10 0 1 1 4.91196e+07 64 1 
103850 194961 28.59 65 85 95 22014 -10 0 1 1 4.91196e+07 59 1 
103850 194961 28.92 66 83 95 22014 -10 0 1 1 4.91196e+07 69 1 
103850 194960 29.33 68 89 98 22014 -10 0 1 1 4.91196e+07 86 1 
103850 194960 29.7 65 76 89 22014 -11 0 1 1 4.91196e+07 67 1 
103850 194960 30.05 63 69 85 22014 -11 0 1 1 4.91196e+07 44 1 
103850 194960 30.41 69 97 100 22014 -11 0 1 1 4.91196e+07 28 1 
103850 194959 30.79 85 101 100 22014 -11 0 1 1 4.91196e+07 74 1 
103850 194959 31.21 87 106 105 22014 -11 0 1 1 4.91196e+07 58 1 
103850 194959 31.59 88 108 109 22014 -11 0 1 1 4.91196e+07 69 1 
103850 194959 31.92 84 110 109 22014 -11 0 1 1 4.91196e+07 54 1 
103850 194959 32.32 80 94 96 22014 -11 0 1 1 4.91196e+07 49 1 
103850 194958 32.72 69 86 92 22014 -11 0 1 1 4.91196e+07 57 1 
103850 194958 33.04 67 80 92 22014 -11 0 1 1 4.91196e+07 52 1 
103850 194958 33.39 67 84 88 22014 -11 0 1 1 4.91196e+07 80 1 
103850 194958 33.79 65 81 89 22014 -11 0 1 1 4.91196e+07 103 1 
103850 194957 34.18 68 82 87 22014 -11 0 1 1 4.91196e+07 62 1 
103850 194957 34.61 68 81 86 22014 -11 0 1 1 4.91196e+07 123 1 
103850 194957 34.18 66 82 85 22014 -11 0 1 1 4.91196e+07 29 1 
103850 194956 33.4 66 83 83 22014 -11 0 1 1 4.91196e+07 28 1 
103850 194956 32.72 70 83 84 22014 -11 0 1 1 4.91196e+07 33 1 
103850 194955 31.99 66 84 87 22014 -11 0 1 1 4.91196e+07 25 1 
103850 194955 31.17 68 80 87 22014 -11 0 1 1 4.91196e+07 35 1 
103850 194955 30.36 66 80 86 22014 -11 0 1 1 4.91196e+07 33 1 
103850 194954 29.58 66 82 82 22014 -11 0 1 1 4.91196e+07 34 1 
103850 194954 28.79 67 83 85 22014 -11 0 1 1 4.91196e+07 28 1 
103850 194953 28.01 69 84 85 22014 -11 0 1 1 4.91196e+07 36 1 
103850 194953 27.27 70 87 87 22014 -11 0 1 1 4.91196e+07 28 1 
103850 194952 26.47 76 92 92 22014 -11 0 1 1 4.91196e+07 35 1 
103850 194952 26.36 74 84 88 22014 -12 0 1 1 4.91196e+07 157 1 
103850 194952 26.35 81 97 100 22014 -12 0 1 1 4.91196e+07 180 1 
103850 194951 26.36 113 132 123 22014 -12 0 2 1 4.91196e+07 10 1 
103850 194963 26.47 71 85 85 22014 -10 0 2 1 4.91196e+07 194 1 
103850 194962 22.66 68 83 85 22014 -10 0 2 2 4.91196e+07 37 1 
103850 194963 26.48 70 89 89 22014 -10 0 1 1 4.91196e+07 209 1 
103850 194962 26.45 71 85 83 22014 -10 0 1 1 4.91196e+07 185 1 
103850 194962 26.64 68 84 83 22014 -10 0 1 1 4.91196e+07 39 1 
103850 194962 27.02 63 86 81 22014 -10 0 1 1 4.91196e+07 48 1 
103850 194962 27.4 66 81 81 22014 -10 0 1 1 4.91196e+07 45 1 
103850 194961 27.74 63 80 80 22014 -10 0 1 1 4.91196e+07 48 1 
103850 194961 28.11 62 79 85 22014 -10 0 1 1 4.91196e+07 56 1 
103850 194961 28.47 62 79 87 22014 -10 0 1 1 4.91196e+07 36 1 
103850 194961 28.83 64 83 89 22014 -10 0 1 1 4.91196e+07 58 1 
103850 194960 29.2 67 90 98 22014 -10 0 1 1 4.91196e+07 42 1 
103850 194960 29.58 63 80 89 22014 -11 0 1 1 4.91196e+07 65 1 
103850 194960 29.96 61 69 79 22014 -11 0 1 1 4.91196e+07 41 1 
103850 194960 30.38 62 84 86 22014 -11 0 1 1 4.91196e+07 66 1 
103850 194959 30.71 74 81 87 22014 -11 0 1 1 4.91196e+07 57 1 
103850 194959 31.12 77 95 94 22014 -11 0 1 1 4.91196e+07 43 1 
103850 194959 31.46 86 95 104 22014 -11 0 1 1 4.91196e+07 55 1 
103850 194959 31.85 83 107 105 22014 -11 0 1 1 4.91196e+07 70 1 
103850 194959 32.18 83 96 102 22014 -11 0 1 1 4.91196e+07 68 1 
103850 194958 32.61 74 87 94 22014 -11 0 1 1 4.91196e+07 68 1 
103850 194958 32.97 68 83 91 22014 -11 0 1 1 4.91196e+07 61 1 
103850 194958 33.35 65 83 89 22014 -11 0 1 1 4.91196e+07 60 1 
103850 194958 33.74 67 82 88 22014 -11 0 1 1 4.91196e+07 72 1 
103849 194957 34.1 68 83 88 22014 -11 0 1 1 4.91196e+07 77 1 
103849 194957 34.48 67 82 85 22014 -11 0 1 1 4.91196e+07 105 1 
103849 194957 34.55 65 81 85 22014 -11 0 1 1 4.91196e+07 50 1 
103849 194956 33.72 67 80 83 22014 -11 0 1 1 4.91196e+07 25 1 
103849 194956 32.86 67 82 85 22014 -11 0 1 1 4.91196e+07 33 1 
103849 194956 32.11 70 83 87 22014 -11 0 1 1 4.91196e+07 45 1 
103850 194955 31.31 66 82 84 22014 -11 0 1 1 4.91196e+07 37 1 
103850 194955 30.55 65 81 86 22014 -11 0 1 1 4.91196e+07 39 1 
103850 194954 29.79 68 81 83 22014 -11 0 1 1 4.91196e+07 46 1 
103850 194954 29.03 71 80 86 22014 -11 0 1 1 4.91196e+07 35 1 
